ply
format ascii 1.0
element vertex 1662
property float x
property float y
property float z
end_header
2.114130 0.086323 2.008676 
2.214701 -0.051917 2.345286 
1.397222 -0.819341 2.453240 
1.913930 -0.022230 1.628662 
2.567134 -0.375603 2.669559 
2.837396 -0.268667 2.574372 
1.834596 0.213242 1.450779 
1.883919 -0.381608 2.672182 
1.767779 -0.619665 2.558983 
1.362674 -0.716343 2.544722 
1.244627 -0.737541 2.450963 
1.282880 -0.565926 2.578611 
1.762858 -0.689281 3.420306 
1.487667 -0.467484 2.684079 
2.042804 -0.576820 2.328908 
1.712015 -0.761543 2.550129 
1.557938 -0.781950 2.662159 
1.357370 -0.243503 2.483859 
1.409444 -0.594835 2.656395 
1.506305 -0.184734 2.068938 
1.451560 -0.173614 2.319739 
1.097244 -0.067803 1.420588 
1.258380 -0.309900 2.044719 
1.262263 -0.562194 2.569237 
0.440838 -0.697063 2.562389 
0.539354 -0.751545 2.548764 
0.603072 0.020023 1.228775 
0.649867 -0.271388 2.441402 
0.677936 -0.262684 2.522503 
0.635582 -0.251843 2.469458 
1.301334 -0.451906 2.557628 
0.586351 -0.363365 2.352477 
1.147746 -0.373544 2.113891 
1.309552 -0.679804 2.438320 
0.885376 -0.064836 2.313559 
0.534929 -0.306186 2.319689 
0.597498 -0.273764 2.394251 
1.363270 -0.699146 2.515005 
1.173375 -0.582998 2.593764 
0.756367 -0.426930 2.568033 
1.276017 -0.266488 2.063002 
1.223430 -0.272532 2.056123 
0.308928 -0.063211 2.110361 
1.763757 0.083878 1.996016 
2.345973 -0.780925 2.095368 
0.045513 0.016192 0.116922 
-0.025304 -0.058032 0.524919 
0.519275 -0.008218 1.226507 
0.914929 -0.845028 2.307155 
0.932988 -0.275028 1.672534 
0.788492 -0.203080 1.735124 
1.503385 -0.195571 2.375117 
2.080556 0.024735 1.818947 
1.708628 0.161306 1.834116 
0.610027 -0.193474 2.532345 
0.272963 -0.347918 2.140045 
0.477408 -0.441719 2.388184 
1.252478 -0.355458 2.039062 
2.070197 -0.320009 1.276714 
2.199583 -0.325030 1.161559 
2.966062 -0.519307 2.758135 
1.362156 -0.725138 2.506865 
1.392632 -0.298233 2.580503 
0.181111 -0.365898 2.041796 
0.586734 -0.379131 2.341011 
0.706865 -0.332220 2.530630 
0.412585 -0.098274 2.239963 
0.585092 -0.021680 1.212201 
0.558635 -0.192689 1.170766 
0.523398 -0.143350 1.178348 
0.764632 -0.112840 1.479569 
0.487971 -0.118632 1.110813 
0.936709 -0.501261 2.635362 
0.779415 -0.646880 2.923282 
0.763046 -0.814055 2.371689 
0.677938 -0.676721 2.815941 
0.761097 -0.354013 2.602103 
1.273486 -0.686016 2.428273 
1.886252 -0.007849 1.670386 
1.790650 0.023622 2.066233 
1.370820 -0.125473 1.648330 
1.345911 -0.152613 1.649845 
3.057608 -0.488529 2.612728 
1.103566 -0.021964 1.336997 
1.865627 0.217489 1.608186 
1.371409 0.065035 1.077152 
1.231579 -0.207370 2.081367 
1.985335 -0.337360 2.542741 
-0.020229 -0.149836 1.926417 
0.513261 -0.150818 1.205349 
0.513174 -0.039230 1.158313 
0.514635 -0.083867 1.107174 
1.894551 -0.013762 1.578858 
1.964950 -0.011173 1.480057 
2.103537 0.124849 0.839668 
2.093108 0.189842 0.919864 
1.957166 -0.269183 1.389860 
2.297777 0.265292 0.775987 
3.055504 -0.501278 1.814430 
3.624302 0.126326 0.289374 
-0.388059 -0.205610 0.734229 
-0.434551 0.048478 0.813858 
1.910147 -0.360866 1.520829 
0.708989 -0.092266 1.398353 
0.557604 0.072161 1.698290 
1.977202 0.362275 0.996357 
0.563663 -0.029716 1.231449 
0.377933 -0.063789 0.968912 
0.492234 0.091306 1.164631 
2.030608 -0.319802 1.276155 
0.471759 0.001849 1.092734 
0.046116 -0.333813 2.073594 
2.490529 -0.196797 2.304258 
2.482502 -0.197098 2.288589 
3.091096 -0.410454 2.305002 
2.674537 -0.646695 1.924238 
0.876570 -1.030695 2.448599 
0.067623 0.002116 0.154713 
1.178282 -0.583550 2.573650 
1.263357 -0.560628 2.560012 
0.722935 -0.650290 2.721396 
0.752617 -0.415564 2.524655 
0.547772 -0.196205 1.149440 
0.508553 -0.092543 1.104259 
0.540713 0.032038 1.262112 
0.557124 -0.226604 1.300893 
1.025947 -0.131877 2.305341 
1.419504 -0.634770 2.823188 
1.250359 -0.353771 2.046997 
1.893602 -0.005288 1.671700 
2.980186 -0.530663 2.770082 
0.172558 -0.252915 1.628727 
0.419983 0.101262 1.157369 
0.604810 0.024452 1.228554 
1.418451 -0.299090 2.562055 
0.295633 0.107912 2.005436 
0.557826 -0.187576 2.373008 
2.155203 0.187920 1.381432 
0.838499 -0.639519 2.744510 
1.614303 -0.333920 2.672028 
1.983477 -0.224712 2.374888 
0.510651 -0.062612 1.198982 
2.061279 -0.690616 2.308270 
1.731110 -0.841963 2.477865 
1.256396 -0.330638 2.035805 
0.663965 -0.044051 1.405262 
0.401320 0.050436 1.139915 
0.586967 0.021317 1.209680 
0.505106 -0.120865 1.120051 
0.442436 0.115219 1.086862 
0.405637 -0.037669 1.133720 
0.583641 -0.018506 1.215035 
0.410149 -0.042079 1.129890 
0.411466 -0.161663 1.001919 
0.608170 -0.286252 2.404663 
1.329669 -0.741075 2.411808 
1.363860 -0.171331 2.401708 
1.306852 -0.337261 2.111877 
2.833818 -0.272784 2.794821 
0.936617 -0.506181 2.640944 
0.816283 -0.602133 2.782679 
1.140693 -0.573006 2.547147 
0.724417 -0.650523 2.718799 
1.363619 -0.705043 2.529316 
1.333167 -0.729663 2.407351 
1.656290 -0.364213 2.836086 
1.594663 -0.674167 3.502989 
1.385634 -0.715964 2.688419 
0.495494 -0.065782 2.247725 
0.480812 -0.920955 2.453756 
0.179760 -0.437899 1.984763 
0.226833 -0.805824 2.163024 
1.248252 -0.361467 2.022639 
0.573113 0.105103 1.252584 
0.503543 0.128232 1.152034 
1.267277 -0.382164 2.035640 
1.221815 -0.307730 2.040132 
2.052225 0.227870 1.278478 
3.012241 -0.400153 2.264797 
0.986920 -0.321921 1.956591 
1.033477 -0.308336 1.802958 
0.385937 -0.085337 2.169616 
0.745122 -0.144499 2.676855 
1.771371 0.089611 2.015702 
2.200899 -0.507341 2.248121 
1.454101 0.028136 1.170772 
0.663099 -0.158499 1.359267 
0.438786 -0.047339 1.021126 
1.803132 0.253968 1.449645 
2.866179 -0.033847 0.726509 
0.826770 -0.005424 1.837692 
0.687894 -0.067357 1.405325 
0.527675 0.016510 1.124794 
0.520281 -0.040722 1.165287 
-0.079346 -0.301086 1.941717 
0.966225 -0.207805 1.703589 
1.559164 -0.268885 2.519210 
1.448893 -0.475725 2.642910 
1.276132 -0.377123 2.062012 
0.567381 -0.376085 2.361283 
0.434703 -0.327286 2.178897 
0.653099 -0.563867 2.777223 
2.529221 -0.127114 0.470224 
2.466704 0.449471 0.963981 
1.696943 0.213081 1.240894 
2.386435 0.327253 0.694021 
1.947703 -0.249622 1.571059 
2.126874 -0.138414 1.750392 
4.177882 0.172837 0.183353 
4.449366 0.264778 0.106159 
2.112986 0.284334 1.235265 
3.784603 0.132185 -0.173402 
3.122510 0.739574 0.723175 
0.046276 -0.003318 0.162174 
0.795099 -0.202406 1.721231 
0.354691 -0.060987 0.978389 
0.547109 -0.224054 2.327032 
0.347720 -0.862225 2.308617 
0.305826 -0.076818 2.174125 
-0.135578 -0.365860 1.843136 
2.300013 -0.062524 2.026662 
1.740808 0.300915 1.270594 
0.744147 -0.415860 2.872703 
0.784863 -0.877517 2.398371 
1.897418 -0.298243 1.448098 
1.900697 0.155531 1.562888 
0.515447 -0.040284 1.152862 
0.440517 -0.029632 1.110343 
0.320006 -0.042780 0.927407 
0.551910 -0.192194 1.174890 
0.533390 -0.055959 1.195853 
0.616396 -0.424434 2.518548 
0.704584 -0.432975 3.149930 
1.965626 0.255960 1.044302 
2.285501 -0.253175 1.815323 
1.991955 -0.129328 1.597107 
2.307389 -0.243747 1.795477 
1.933848 0.246460 1.118541 
2.159723 0.061114 1.469282 
2.028957 0.186212 1.307379 
1.894399 0.094445 1.499161 
1.939846 -0.045660 1.526703 
2.785663 0.302514 0.849943 
2.220408 0.287761 0.800070 
1.891903 -0.006046 1.670086 
2.610290 -0.095871 0.369831 
1.940792 -0.321146 1.542485 
1.892182 -0.332317 1.445133 
2.447784 0.298639 0.675553 
2.606555 -0.714701 1.699163 
1.839032 0.161520 1.189527 
1.914696 0.143943 1.555876 
1.270930 -0.430343 2.076736 
1.319558 -0.384084 2.096266 
0.626932 -0.580086 2.811901 
0.525697 -0.432439 2.315999 
1.022245 -0.276097 1.787994 
0.926195 -0.243445 2.366358 
1.540576 -0.136860 2.053845 
1.100687 -0.683164 2.353961 
0.435378 -0.261750 2.195520 
1.392418 -0.811284 2.442576 
0.580264 -0.467163 2.647416 
0.616163 -0.354389 2.381275 
1.614179 -0.321725 2.819858 
1.724633 -0.220691 2.211551 
1.590417 -0.272406 2.324303 
1.361098 -0.254953 2.489331 
0.549649 -0.187874 1.161099 
0.388216 0.120471 1.079053 
0.387591 -0.133807 2.189093 
0.530708 -0.525113 2.635837 
0.357368 -0.527603 2.480490 
0.582337 0.087248 1.766561 
0.513831 -0.042706 1.161308 
0.461997 0.076595 1.155684 
0.412437 0.013519 1.050085 
2.142399 -0.639764 2.209004 
1.912713 0.099238 1.984993 
1.944312 -0.392770 1.373700 
1.331252 -0.171361 1.653994 
1.823087 0.110955 1.970432 
1.521704 -0.339409 2.751756 
2.152546 -0.807707 3.834869 
1.082279 -0.544200 2.542914 
1.523141 -0.183517 2.066280 
1.760093 0.135230 1.894230 
1.292625 -0.214753 1.698547 
1.593641 -0.241183 2.302391 
0.886716 -0.046795 1.684357 
0.759415 -0.152829 1.460677 
0.511316 -0.125850 1.285143 
0.499097 0.040986 1.170741 
0.369889 0.126052 1.092968 
0.438257 0.038363 1.153922 
0.519821 -0.033562 1.179281 
0.512401 0.029225 1.138158 
1.147285 0.529588 0.898828 
0.963313 -0.196498 1.707978 
0.549505 -0.331967 1.163204 
0.557974 -0.330133 1.156317 
0.569993 0.025168 1.234348 
1.098393 -0.731704 2.520581 
1.179162 -0.546631 2.520888 
1.565160 -0.730185 3.350913 
0.575059 -0.052411 2.922384 
1.366455 -0.083103 2.355637 
1.275118 -0.260534 2.048214 
1.303435 -0.312725 2.120058 
1.589404 -0.244189 2.288374 
1.347508 -0.379698 2.120002 
0.599480 -0.347688 2.459723 
0.649919 -0.270614 2.444891 
0.477188 -0.966454 2.703332 
1.434497 -0.433360 2.620704 
0.762002 -0.787861 2.385354 
1.432338 -0.435142 2.619133 
1.523266 -0.340490 2.754054 
0.740341 -0.522858 2.763576 
1.509214 -0.183779 2.076412 
1.509558 -0.184814 2.076260 
1.904837 0.061084 1.502665 
1.270674 -0.447024 2.359924 
0.883824 -0.047107 2.420326 
-2.102892 -0.561247 4.324259 
0.658353 -0.245511 2.511257 
0.504853 -0.080428 1.095360 
0.725515 -0.184478 1.437999 
-0.000851 -0.118006 1.968018 
2.068053 0.047367 2.128976 
2.046777 -0.401709 2.332068 
0.872475 -0.064810 2.129156 
0.937657 -0.058598 1.712388 
0.518528 -0.130559 1.279656 
0.355892 -0.261054 2.121536 
0.070595 0.013452 2.078843 
0.567435 -0.069602 1.241099 
1.447720 -0.216292 2.446129 
1.342260 -0.168675 1.643344 
1.956164 -0.260932 1.631839 
1.299279 -0.185541 1.644030 
2.254128 -0.023245 2.043535 
0.445208 0.126224 1.124152 
0.727079 -0.001304 1.411637 
0.618220 -0.711601 1.980776 
0.835117 -1.043069 2.893065 
1.274648 -0.255909 2.052869 
1.300868 -0.310925 2.125539 
1.428066 -0.205425 2.411409 
1.709026 -0.228775 2.219637 
2.141649 0.067405 2.048915 
2.148772 -0.657834 2.204523 
1.867139 -0.843314 2.443816 
2.033658 -0.624694 2.303264 
3.006976 -0.536592 2.784869 
1.423369 -0.561582 2.768101 
1.715133 -0.235322 2.230040 
1.218277 -0.393904 2.372673 
0.443520 -0.208771 2.195727 
1.274327 -0.267286 2.057880 
1.244275 -0.699971 2.426741 
1.109914 -0.045054 1.379162 
1.091114 -0.149035 1.899477 
0.206575 0.001315 1.905272 
1.076825 -0.349448 1.860826 
0.453106 -0.286923 2.216052 
1.072480 -0.289679 1.804302 
0.436093 -0.120012 2.234859 
0.654799 -0.084012 2.652742 
0.336058 -0.082476 2.178552 
0.455061 -0.291583 2.233204 
0.472644 -0.176030 2.282446 
1.224554 -0.334357 2.031080 
2.032915 -0.401511 2.315722 
0.369445 -0.186649 2.213877 
0.113772 -0.449199 2.120085 
0.550537 -0.505008 2.607557 
0.389629 -0.191407 2.204355 
0.537595 -0.309704 2.304950 
1.865293 0.192259 1.739188 
1.950338 -0.363141 1.528101 
1.331252 -0.172057 1.652790 
1.976073 -0.261045 1.645499 
0.752721 -0.568321 2.882575 
1.621425 -0.431993 2.936978 
1.412833 -0.511412 2.702249 
0.497073 -0.226927 2.272964 
0.963155 -0.451373 2.688674 
0.599802 -0.021987 1.208309 
0.548625 0.088001 1.248047 
0.603542 0.023729 1.225443 
0.428907 0.092069 1.143360 
0.378393 0.029527 1.000148 
0.886251 -0.247279 1.658237 
0.448209 -0.286011 2.220038 
0.807557 -0.076320 2.201304 
0.472011 -0.378082 1.526975 
0.476604 -0.915426 2.434905 
0.506941 -0.245999 1.168667 
0.512897 0.003763 1.219755 
0.504827 0.019324 1.152987 
0.503099 -0.124779 1.130991 
1.302642 -0.415923 2.082854 
1.358840 -0.243441 2.476068 
1.978089 -0.225139 2.363989 
2.207339 -0.074282 2.043001 
2.843944 -0.454051 2.508795 
-0.058413 -0.320184 1.979477 
0.917466 -0.211067 1.677765 
1.436293 -0.335704 2.472499 
2.398182 -0.578264 2.939569 
1.304862 -0.337237 2.110670 
1.298397 -0.671070 2.444968 
1.872505 -0.201862 2.648458 
1.923135 -0.164717 1.513734 
1.860242 0.203682 1.444977 
-0.006195 0.023810 0.093555 
0.560738 -0.289898 2.368192 
1.389089 -0.716625 2.689234 
0.594369 -0.514827 2.569017 
1.306564 -0.675295 2.428816 
0.643801 -0.204127 2.495288 
1.314915 -0.605207 2.839394 
0.599089 -0.646434 2.572849 
2.102461 -0.608611 2.283139 
1.858013 -0.200550 2.630576 
-0.089503 0.066573 1.956774 
0.521161 -0.304651 2.332099 
0.489109 -0.265921 2.265815 
0.375991 -0.203097 2.149483 
0.141511 -0.067109 2.251270 
1.271747 -0.189908 2.100994 
1.224371 -0.196450 2.103462 
1.457367 -0.226275 2.481731 
3.073355 -0.484936 2.629223 
1.701027 -0.139436 2.112170 
0.547860 0.076261 1.129306 
0.380849 0.001618 1.039339 
0.435655 0.120288 1.094131 
0.549049 0.068621 1.129341 
0.401154 0.113243 1.073727 
0.431479 -0.092871 1.051179 
0.710692 -0.170184 1.418819 
0.561155 -0.156804 1.212017 
1.972033 -0.013426 1.750987 
1.295581 -0.148880 0.925166 
1.969713 0.157591 1.789760 
0.546841 0.061067 1.123568 
0.440014 -0.209761 1.035500 
0.512188 0.027203 1.169158 
1.035837 0.215629 1.270862 
0.108709 -0.028635 2.869604 
0.686624 -0.154134 1.414994 
0.875540 -0.056555 2.148381 
0.749580 0.012380 1.522820 
0.035078 -0.395822 2.069613 
0.351164 -0.267035 2.142893 
0.512866 -0.039126 1.157714 
0.506315 -0.062734 1.188575 
0.598320 -0.015582 1.223059 
1.425577 -0.561468 2.765254 
-0.039331 0.027081 0.107468 
-0.014038 0.028121 0.080674 
0.095061 0.026673 0.100959 
0.014862 0.020323 0.104815 
0.002700 0.027917 0.084304 
0.019334 0.030002 0.079941 
-0.066215 0.021078 0.091985 
-0.067795 0.010910 0.110321 
-0.095277 -0.115508 0.536755 
-0.062388 0.032863 0.083943 
0.054130 0.013651 0.136220 
-0.039761 0.030340 0.101312 
0.026224 0.004868 0.139109 
0.019407 0.029976 0.079678 
0.073783 0.020341 0.119630 
-0.030993 -0.148469 0.609920 
-0.009533 0.025285 0.168182 
-0.046860 0.009868 0.216118 
0.012880 0.031635 0.082468 
-0.022831 0.034588 0.064280 
0.050261 0.039363 0.060924 
0.032292 0.039581 0.069378 
0.011735 0.034457 0.068915 
-0.059607 0.025103 0.102593 
0.035886 0.021598 0.101934 
-0.072421 0.045104 0.082143 
-0.016066 0.031023 0.074969 
0.009860 0.031265 0.087088 
-0.047745 0.032806 0.097598 
0.003694 0.038082 0.059059 
-0.010930 -0.204250 0.613128 
0.021578 0.033242 0.073527 
0.011570 0.034540 0.068922 
0.080041 -0.245733 0.708023 
0.221376 -0.325157 0.890792 
0.036079 0.044343 0.047923 
-0.025146 0.011724 0.191034 
-0.076758 -0.007205 0.127767 
-0.088716 -0.001921 0.125499 
-0.070979 0.018598 0.093670 
-0.014781 0.031230 0.073469 
0.054157 -0.262251 0.771153 
0.380488 -0.302218 1.080771 
-0.392419 -0.337166 0.875899 
0.321040 -0.350346 1.241073 
-0.077391 0.005019 0.116859 
0.028380 0.043292 0.049401 
-0.065508 0.035898 0.084989 
0.074607 0.020080 0.118547 
0.003458 -0.165378 0.649105 
-0.014879 0.031168 0.073703 
-0.081393 0.007234 0.107517 
-0.069402 0.029856 0.081809 
0.038794 0.028678 0.084373 
0.070998 0.018962 0.123357 
0.092936 0.011076 0.134795 
-0.036339 0.009790 0.124398 
-0.070566 -0.007476 0.127760 
-0.080952 0.004481 0.112025 
-0.049893 0.021189 0.109998 
0.059938 -0.180611 0.704130 
-0.051493 0.024186 0.103382 
-0.095656 -0.112280 0.542348 
-0.203874 -0.107473 0.650627 
0.103028 0.018972 0.116452 
-0.069077 0.043076 0.078305 
-0.068707 0.029856 0.081489 
0.061575 0.037454 0.069129 
-0.073777 -0.068609 0.563696 
-0.002806 0.042810 0.046005 
-0.095003 -0.105068 0.530550 
-0.028235 -0.067635 0.620899 
-0.044039 0.019829 0.104251 
-0.056259 0.021516 0.105055 
-0.536781 -0.309759 0.717031 
0.033632 0.038879 0.070071 
0.010688 0.030896 0.087049 
0.070883 0.019001 0.123557 
-0.006612 0.023970 0.093332 
-0.053927 0.033296 0.088205 
0.014928 0.038618 0.059064 
0.092014 0.011204 0.133625 
-0.087788 -0.002112 0.123600 
0.011474 0.034402 0.067944 
-0.055620 0.031722 0.086716 
0.052156 0.013791 0.136277 
-0.009798 0.029792 0.077963 
-0.298754 -0.414448 0.976430 
-0.422065 -0.330586 0.862271 
-0.481651 -0.363083 0.820423 
-0.539374 -0.311901 0.716821 
0.410471 -0.329681 1.166754 
-0.004843 0.043637 0.044500 
-0.034264 0.019983 0.112791 
-0.035384 0.019770 0.122397 
-0.046761 0.005234 0.125446 
-0.013303 0.043954 0.042495 
0.003211 0.044487 0.042699 
-0.085318 -0.001066 0.120000 
-0.605299 -0.537432 0.894394 
-0.320295 -0.343026 0.979895 
-0.027184 0.042134 0.045788 
0.036971 0.038331 0.062480 
0.023338 0.042176 0.051889 
-0.005409 0.038052 0.069377 
0.035438 0.038188 0.060804 
0.035046 0.044173 0.047052 
-0.684394 -0.017269 0.937670 
-0.115133 -0.491501 1.114043 
0.894363 -0.255310 1.623255 
0.376865 -0.761464 1.710694 
-0.037511 0.002840 0.114073 
0.002517 0.027819 0.084115 
0.051688 -0.001342 0.162623 
-0.053992 0.025537 0.101276 
-0.677957 -0.431531 0.850079 
-0.086639 -0.080437 0.557232 
-0.567121 -0.312178 0.689746 
-0.503352 -0.299678 0.775480 
-0.363716 -0.322781 0.956905 
0.037459 0.038526 0.062278 
-0.015117 0.031543 0.069402 
0.044742 0.041014 0.056791 
0.058991 -0.243268 0.688933 
-0.060738 -0.110372 0.554857 
-0.010054 0.029746 0.078508 
0.011483 0.034450 0.068391 
-0.121003 -0.518664 1.183206 
0.265025 0.008329 0.287885 
-0.083890 -0.005605 0.120900 
-0.085459 -0.001039 0.120495 
-0.049757 0.019849 0.103400 
-0.323998 -0.184831 0.700588 
-0.055275 0.029816 0.096654 
-0.027882 -0.126251 0.586313 
1.095280 -0.882396 2.014323 
0.086286 0.016904 0.119235 
-0.597822 -0.322856 0.739391 
-0.077474 0.013443 0.107647 
-0.027826 0.057850 0.064378 
0.043499 0.039715 0.060269 
0.056424 -0.242000 0.675906 
-0.022866 0.034487 0.064158 
0.123838 -0.221512 0.793199 
0.023775 0.040917 0.049175 
0.044620 0.041047 0.056691 
-0.054147 0.033268 0.088088 
0.031020 0.032257 0.075451 
-0.051253 0.018590 0.105530 
0.025786 0.025991 0.091867 
-0.097894 -0.050456 0.598405 
0.027880 0.043467 0.049208 
-0.065763 -0.019763 0.565253 
0.075973 0.026020 0.096496 
-0.378501 -0.358051 0.864119 
0.177098 -0.294419 0.826231 
0.014596 0.038801 0.059671 
0.015344 0.044584 0.056323 
-0.087752 -0.002260 0.123468 
-0.052001 0.024932 0.093948 
0.019932 0.046082 0.050790 
-0.006227 0.026098 0.087152 
0.014222 0.044441 0.055010 
0.887607 -0.199678 1.624437 
-0.066464 0.036332 0.086394 
-0.046734 0.027262 0.101690 
-0.057016 -0.181879 0.544727 
0.170692 -0.000856 0.256580 
-0.044919 0.010207 0.218133 
0.013520 -0.421699 0.788328 
0.010080 -0.094370 0.675026 
0.136064 -0.096760 0.822103 
0.050771 -0.103408 0.742160 
-0.357890 -0.380990 0.907876 
0.853077 -0.964484 2.304570 
-0.034705 0.020053 0.116052 
0.014393 0.044564 0.055467 
-0.046961 0.006142 0.123547 
-0.046886 0.027249 0.102218 
0.020810 0.029809 0.079863 
0.031090 0.032260 0.074997 
-0.327101 -0.382396 0.961902 
-0.536158 -0.336404 0.744442 
-0.286929 -0.385224 0.978224 
-0.124538 -0.099865 0.635464 
-0.482354 -0.361562 0.820307 
-0.328193 -0.190580 0.714735 
1.758029 -0.849846 2.440290 
0.028399 0.043302 0.049590 
0.014717 0.020410 0.104451 
1.220562 -0.341996 2.013539 
0.075989 -0.178863 0.718715 
-0.068524 0.008360 0.272951 
-0.278238 -0.055777 0.666532 
-0.457440 -0.284649 0.854064 
0.708372 -0.112278 1.408546 
0.052236 0.012927 0.138298 
0.119706 0.018965 0.117024 
-0.047845 0.038423 0.081040 
-0.002688 0.005468 0.270021 
0.057015 -0.093461 0.733632 
-0.280112 -0.590345 1.091861 
-0.473750 -0.349812 0.806869 
0.085240 0.008149 0.142542 
0.145599 -0.262998 0.916983 
-0.051805 0.024155 0.103256 
-0.006162 0.023891 0.093031 
0.216718 -0.251860 0.887639 
0.019634 0.045990 0.050651 
0.163100 -0.143060 0.857464 
0.121660 -0.091014 0.811300 
0.066953 0.042460 0.054152 
-0.028354 -0.067553 0.620045 
-0.050682 0.008656 0.224479 
-0.415989 -0.302042 0.831875 
0.042384 0.025567 0.094078 
0.039195 0.028574 0.085613 
0.055476 0.041447 0.057669 
-0.040143 0.019618 0.126346 
0.077146 -0.240035 0.696294 
-0.323628 -0.361562 0.947899 
0.039008 0.028514 0.085300 
0.052137 0.007488 0.139656 
-0.001831 0.039005 0.066481 
0.001811 0.033260 0.079346 
-0.198592 -0.039554 0.607709 
-0.079199 0.006809 0.109857 
0.001354 0.039172 0.055706 
0.021662 0.033051 0.073019 
-0.066737 0.017331 0.109846 
0.028619 0.037782 0.072342 
0.015066 0.038548 0.060283 
0.022381 0.036530 0.064316 
0.006250 0.032724 0.082082 
-0.002040 0.037820 0.062723 
1.942509 0.007005 1.492985 
0.061423 0.025290 0.097426 
0.008135 0.036448 0.063767 
0.226304 -0.334928 0.911439 
-0.316374 -0.358842 1.044410 
1.041063 -1.054051 2.071837 
1.113854 -0.896432 2.049534 
1.110893 -0.892034 2.037720 
0.021912 0.033006 0.073257 
0.008245 0.036411 0.064097 
-0.001035 0.034996 0.073794 
0.021789 0.033090 0.073524 
-0.039687 0.010147 0.127895 
-0.007966 0.034309 0.067625 
-0.112763 -0.096329 0.595527 
-0.585289 -0.272452 0.734791 
0.013032 0.025482 0.091687 
-0.655917 -0.017795 0.884869 
0.042474 -0.151249 0.744996 
-0.054426 0.023529 0.099305 
-0.004711 0.037613 0.068507 
-0.060514 -0.002385 0.109971 
0.005427 0.036951 0.061516 
-0.060481 0.020539 0.099279 
-0.274915 -0.488666 1.042083 
-0.156246 -0.029656 0.560640 
0.128139 0.022078 0.104857 
0.037080 0.038360 0.061725 
-0.015557 0.044782 0.041322 
-0.043914 0.007986 0.117987 
-0.071346 0.011289 0.108618 
2.038013 -0.830662 2.233649 
-0.353358 -0.068224 0.713136 
-0.442486 -0.099856 0.767231 
-0.058347 0.017600 0.109219 
-0.045660 0.002738 0.121588 
-0.027526 -0.007281 0.520495 
0.058201 -0.172313 0.693305 
0.264862 0.007945 0.290006 
-0.165596 -0.028860 0.569602 
0.221555 -0.338489 0.890198 
-0.002965 0.043002 0.046338 
0.055336 0.031833 0.080109 
0.014728 0.017498 0.110415 
-0.218714 -0.040653 0.618240 
-0.513093 -0.320621 0.769072 
-0.456175 -0.383668 0.797513 
0.074788 0.028548 0.090730 
-0.491302 -0.306370 0.783709 
-0.010966 0.043553 0.047087 
0.550571 -0.142545 1.170122 
2.049577 -0.457249 2.318153 
1.879226 -0.215457 2.232843 
2.532662 -0.343107 2.766959 
2.098778 -0.990336 2.073915 
0.197452 -0.168941 0.889815 
0.044022 0.045178 0.044648 
2.123232 -0.599755 2.264987 
2.096806 -0.600725 2.279725 
0.348130 -0.223543 0.902189 
-0.059364 -0.047188 0.583111 
-0.002252 0.000304 0.311879 
-0.070931 -0.007741 0.128045 
0.059531 0.029063 0.087202 
0.020375 0.012457 0.124474 
0.166743 -0.001099 0.252447 
0.049127 0.049927 0.045245 
0.041969 0.054148 0.036750 
-0.116167 -0.500776 1.133406 
0.123351 -0.202968 0.745960 
0.074098 0.004340 0.149797 
0.093498 0.010680 0.135916 
-0.233191 -0.044902 0.623539 
-0.071269 -0.076490 0.549677 
0.102457 0.018733 0.115751 
-0.011908 -0.224099 0.605353 
-0.058621 -0.108542 0.544101 
0.050872 -0.054533 0.717012 
0.449517 0.106298 1.119339 
1.630423 -0.788700 2.602202 
0.265760 -0.193302 0.928299 
0.186894 -0.243616 0.903827 
-0.048455 0.010042 0.225409 
-0.297063 -0.398243 0.979127 
-0.455829 -0.276328 0.847656 
-0.035415 0.021141 0.125133 
0.044091 0.045391 0.046126 
0.031105 0.030660 0.079326 
-0.022867 0.041325 0.047515 
0.082947 0.045652 0.089766 
0.045879 0.054568 0.031914 
2.123518 0.042933 1.843991 
-0.040894 0.019871 0.132721 
-0.001779 0.038137 0.063781 
2.176094 -0.312876 1.143465 
2.011144 -0.535444 1.258925 
0.068227 0.006921 0.139825 
-0.053061 0.015814 0.107293 
-0.024981 0.011573 0.191948 
-0.055287 0.023830 0.104455 
-0.054335 0.023611 0.102784 
0.022829 0.028054 0.084831 
-0.685916 -0.018471 0.928168 
0.054291 -0.233082 0.666907 
-0.350271 -0.073414 0.723827 
1.314935 -0.412639 2.178315 
-0.049058 0.020503 0.102728 
-0.145707 -0.119907 0.598999 
-0.319775 -0.372840 1.071866 
0.051961 -0.232936 0.670635 
0.482327 0.128810 1.147623 
0.057268 -0.167876 0.693479 
0.110938 0.016486 0.122454 
1.255005 -0.191635 1.717854 
1.115216 -0.870761 2.073925 
0.018220 0.017542 0.111478 
0.052718 0.012869 0.138791 
-0.646582 -0.506751 0.849527 
-0.612277 -0.462785 0.825301 
-0.660037 -0.149457 0.954902 
-0.282526 -0.486966 1.024989 
-0.010782 0.026264 0.175928 
-0.061508 -0.049897 0.604440 
-0.063083 0.018247 0.100258 
0.090279 0.039893 0.064466 
0.074071 0.041497 0.058872 
-0.240029 -0.455729 1.051513 
-0.036003 -0.013895 0.548602 
-0.233517 -0.448839 1.031608 
0.020125 0.011466 0.454723 
0.216484 -0.014336 1.066471 
0.044594 -0.053961 0.719044 
-0.049970 0.033226 0.097113 
0.118109 -0.143272 0.786322 
0.122918 -0.198495 0.784864 
0.035593 0.024034 0.096666 
0.048016 0.048466 0.043863 
-0.417232 -0.353360 0.892599 
1.314680 -0.905233 2.101033 
1.021227 -1.035990 2.029905 
0.110858 0.016443 0.121646 
0.264385 0.007776 0.287720 
-0.011893 0.022687 0.146593 
0.057113 -0.023964 0.232705 
0.023005 0.027787 0.085835 
0.018674 0.042833 0.060357 
0.006185 0.032649 0.083556 
1.360251 -0.532284 2.702035 
0.614018 -0.590830 1.636355 
-0.263052 -0.116383 0.726698 
0.015031 0.038585 0.059223 
-0.059974 0.021234 0.099593 
-0.058989 -0.177855 0.546391 
0.103148 0.015080 0.126281 
0.480353 -1.118038 2.033981 
0.003696 -0.404469 0.804473 
-0.192546 -0.037791 0.594175 
-0.025251 0.012043 0.190684 
-0.039474 0.030371 0.094284 
-0.044948 0.035034 0.095486 
-0.066358 0.048084 0.078946 
0.055211 0.045620 0.054020 
0.170355 -0.244375 0.845847 
-0.045994 0.010263 0.225897 
-0.529726 -0.285302 0.769345 
1.105401 -1.328774 2.416009 
2.320575 -0.223362 2.028698 
0.045268 -0.006809 0.179767 
-0.054782 0.029851 0.096374 
0.003860 0.040490 0.052722 
-0.061867 0.029982 0.084915 
-0.061406 0.023982 0.087660 
0.314269 -0.046795 0.931133 
0.828462 -1.120640 2.260567 
-0.066915 -0.152506 0.528204 
0.428724 -0.092024 0.744225 
0.157074 0.030653 0.089243 
0.172575 -0.173777 0.872862 
0.794799 -0.170919 1.575988 
-0.604111 -0.482613 0.898141 
-0.091109 -0.084756 0.564812 
1.331815 -0.418409 2.185987 
-0.121704 -0.043985 0.603321 
0.278574 -0.008485 0.251639 
-0.035025 0.018662 0.146552 
-0.080440 -0.037718 0.563233 
0.076104 0.039449 0.064884 
0.117751 -0.143604 0.798657 
-0.219367 -0.042155 0.617630 
-0.354926 -0.435993 0.913630 
-0.009583 0.027422 0.084467 
-0.095763 -0.037178 0.570301 
-0.115426 -0.077758 0.589609 
-0.071180 -0.007661 0.128666 
2.019907 -0.788843 2.028024 
2.529750 -0.347117 2.766572 
-0.007537 0.029776 0.077726 
-0.089165 0.029963 0.087066 
0.017887 0.023598 0.096784 
-0.053045 0.040033 0.049393 
-0.006044 0.023903 0.093090 
-0.059802 -0.197475 0.535994 
0.076003 0.025909 0.095965 
-0.047653 0.035284 0.091396 
-0.039624 0.017384 0.111322 
0.886214 -0.192774 1.617153 
1.237510 -0.137678 0.722826 
2.157074 -0.663111 1.319153 
1.455558 0.022374 1.167100 
2.914285 -0.546194 0.605578 
1.245656 -0.202740 0.704864 
3.590209 -0.393212 -0.023696 
0.047934 -0.003435 0.164611 
-0.025947 0.013035 0.177996 
0.077377 0.026053 0.097733 
0.051469 -0.001385 0.162366 
-0.091488 0.015673 0.107939 
1.203136 0.536952 0.832966 
1.195416 0.533931 0.831048 
0.036493 0.030703 0.081065 
1.353678 0.169977 0.730650 
1.235164 0.115306 0.899072 
1.392371 0.073374 1.076152 
2.040498 0.591350 -0.352364 
1.780748 0.433989 -0.628005 
1.632620 0.634905 0.530656 
0.076232 0.020390 0.120719 
-0.158168 0.020983 0.457981 
-0.029261 0.043537 0.040322 
-0.007785 0.029688 0.078210 
0.002227 0.046161 0.040376 
0.034679 0.039675 0.069521 
2.170343 -0.324043 1.160064 
3.072542 -0.230221 -0.376712 
2.047449 -0.284292 0.329719 
2.216910 -0.698774 1.049261 
-0.008932 0.029686 0.077465 
-0.044330 0.034948 0.094507 
0.692964 -0.130490 1.379043 
-0.046266 0.011771 0.194808 
-0.071877 0.038254 0.081106 
0.751327 0.009609 1.491976 
0.659706 0.102981 1.514803 
0.755389 0.015143 1.514134 
1.403030 -1.148062 2.279528 
0.045427 0.004028 0.148750 
-0.005561 0.038510 0.069761 
-0.017396 0.036908 0.059819 
0.069058 0.004343 0.153454 
-0.024563 -0.060256 0.620807 
-0.494890 -0.116366 0.849190 
0.067012 0.002138 0.154592 
-0.063457 0.023804 0.096293 
0.002465 0.038681 0.057261 
0.014165 0.017533 0.109515 
-0.058182 -0.180605 0.547493 
0.069063 -0.014081 0.203142 
-0.141655 0.014123 0.416984 
0.266144 0.008579 0.286958 
0.085940 -0.180677 0.973608 
-0.001683 -0.165112 0.650888 
-0.012420 -0.206007 0.610879 
0.013938 0.044529 0.054671 
0.052740 0.013363 0.139697 
-0.034292 0.019954 0.112403 
2.229553 -0.212692 1.878002 
-0.278749 -0.425022 1.087183 
0.002071 0.045734 0.039869 
0.008678 0.042574 0.048616 
0.067541 0.042921 0.054960 
-0.488696 -0.132790 0.876064 
-0.407993 -0.478526 0.877574 
-0.036925 0.034311 0.099794 
1.531160 0.262317 1.372909 
0.574148 -0.116635 1.188424 
0.525213 -0.335126 1.132584 
1.871706 0.114134 1.484280 
1.349548 -0.222276 0.952175 
1.907982 0.140961 1.579322 
0.008245 0.050487 0.029256 
0.086180 0.016941 0.118738 
0.096043 0.044721 0.050104 
-0.034107 0.030480 0.110333 
0.095341 0.026906 0.101223 
-0.060832 0.020591 0.099858 
-0.063900 0.023193 0.089516 
0.023865 0.006752 0.140684 
-0.033914 0.031063 0.110524 
-0.791826 -0.358578 0.661609 
-0.054140 0.012749 0.187311 
0.030591 0.041042 0.054824 
0.133483 0.023035 0.112608 
0.039559 0.043425 0.049661 
-0.050092 0.014359 0.203493 
1.406385 -0.277615 1.009283 
0.021071 0.007850 0.139316 
0.044403 0.041003 0.056694 
0.093527 0.010589 0.136096 
0.050009 0.039432 0.060827 
-0.021559 0.027548 0.155901 
0.023023 0.026933 0.088035 
-0.053971 0.022190 0.105922 
-0.012245 0.029329 0.079052 
-0.074946 0.006267 0.114258 
-0.181213 -0.038396 0.589862 
-0.451978 -0.355996 0.857487 
-0.065507 0.012785 0.111511 
0.058747 -0.183182 0.705206 
0.365221 -0.287837 1.039668 
0.224878 -0.340411 0.894864 
0.041099 0.042930 0.050881 
0.046135 -0.018788 0.238757 
0.086401 0.008024 0.141813 
-0.034259 -0.011982 0.507593 
1.355595 -0.279920 2.542138 
2.049116 -0.446373 2.320642 
2.018440 -0.216537 2.290344 
2.013296 -1.031183 2.318095 
0.069728 0.043202 0.053457 
0.086094 0.008210 0.142042 
0.086398 0.016853 0.119642 
-0.006141 0.025820 0.086275 
-0.067041 -0.005167 0.117823 
-0.066128 0.021110 0.091581 
0.055632 0.041419 0.057889 
0.420893 -0.331427 1.221869 
0.451429 -0.332114 1.222885 
-0.038097 0.007415 0.120657 
-0.061690 0.034311 0.084690 
0.002324 0.037009 0.072435 
-0.059964 -0.001005 0.124709 
0.440857 -0.053797 1.033007 
0.253375 -0.528794 1.496799 
0.439654 -0.061216 1.016349 
0.529353 0.009575 1.223048 
-0.060307 0.031040 0.085553 
-0.060773 0.020820 0.100250 
-0.035581 0.020178 0.123196 
-0.035073 0.041068 0.043497 
-0.048893 0.032936 0.098984 
0.041599 0.042846 0.050665 
-0.337707 -0.176504 0.771702 
-0.052069 -0.035157 0.603160 
-0.046172 0.026998 0.100438 
-0.050952 0.038249 0.082751 
-0.005322 0.024400 0.091007 
0.022258 0.036527 0.064080 
0.041462 0.043094 0.051564 
1.199596 -0.031921 1.346104 
-0.038905 0.026555 0.105917 
-0.377388 -0.327435 0.902107 
2.125963 -0.541679 2.298229 
2.571552 -0.377507 2.673316 
1.499712 -1.129527 2.437087 
0.266990 0.022990 0.242037 
2.189845 -0.068357 1.890745 
1.168491 0.131453 0.647834 
0.862841 -0.350286 1.717033 
1.851026 -1.381986 2.259620 
-0.365103 -0.360909 0.901681 
0.069371 0.031965 0.080409 
0.018086 0.044925 0.049793 
0.011422 0.034573 0.068678 
0.102330 0.029132 0.101493 
0.056124 0.050171 0.037401 
0.055391 0.045749 0.054412 
0.044808 0.045556 0.046289 
0.049968 0.039376 0.060465 
-0.069216 0.043071 0.075772 
0.025748 -0.041103 0.349916 
0.041468 -0.002613 0.164380 
-0.084170 0.003416 0.116826 
-0.003557 0.044219 0.042337 
-0.050346 0.040036 0.083456 
0.118353 0.033988 0.090904 
0.047617 0.048253 0.043701 
0.044651 0.045533 0.046523 
1.067620 -1.292858 2.339370 
-0.091593 0.032353 0.086331 
0.065399 0.048323 0.040916 
0.028146 0.043086 0.049504 
0.080354 0.044536 0.051459 
0.118018 0.033747 0.090692 
-0.069645 0.019381 0.092885 
-0.044126 0.014453 0.110934 
-0.062395 0.018200 0.099078 
-0.044139 0.021355 0.110243 
-0.043944 0.021354 0.109882 
-0.242688 -0.474767 1.000342 
0.075292 0.052850 0.040303 
0.272646 -0.008684 0.248546 
0.046100 -0.018781 0.240800 
-0.664273 -0.151730 0.968851 
-0.060771 0.038729 0.086096 
-0.068337 0.022907 0.086903 
-0.101746 0.026889 0.081151 
0.019043 0.044155 0.046731 
0.048236 0.050043 0.046543 
0.059220 0.028970 0.086745 
0.060780 0.047643 0.050301 
0.171694 0.018581 0.249730 
0.086892 0.017111 0.120318 
-0.078366 0.020281 0.094484 
-0.506568 -0.224460 1.124376 
-0.374423 -0.452948 0.829054 
0.223205 -0.203669 0.922860 
-0.068837 0.030006 0.082049 
0.005978 0.020311 0.104548 
-0.052949 0.011456 0.182412 
-0.045665 0.012093 0.219384 
0.561402 -0.840287 2.026225 
0.732820 -1.160048 2.328444 
0.377609 -0.620801 1.606536 
1.139215 -0.107769 1.526905 
1.120274 -0.875195 2.092922 
-0.040891 0.031871 0.105391 
-0.099656 -0.011843 0.150866 
-0.014276 0.027902 0.081773 
-0.048902 0.035851 0.093620 
-0.053333 -0.548653 1.522583 
0.055436 0.031754 0.079584 
-0.032068 0.042800 0.044494 
-0.092042 -0.010647 0.140051 
-0.099970 -0.012365 0.151158 
-0.010072 0.025918 0.168158 
-0.035380 0.031970 0.106971 
-0.300603 -0.053189 0.674375 
-0.060394 0.014772 0.106101 
0.335485 0.042561 0.974713 
0.965867 0.162315 1.531244 
0.139139 -0.277454 0.778176 
0.007349 0.035962 0.064529 
0.005471 0.037019 0.061488 
0.069599 0.004581 0.157237 
0.002414 0.038640 0.057082 
0.609304 -0.360244 2.413274 
0.766289 -0.690551 1.863922 
1.377203 -0.894834 2.672739 
0.667985 0.260394 1.195172 
0.556436 -0.319887 1.132991 
0.422749 0.204076 1.113605 
-0.014778 0.025779 0.088821 
1.306816 -0.181185 0.825225 
-0.078506 -0.001942 0.154464 
-0.047122 0.005083 0.106995 
-0.048625 0.006000 0.109288 
-0.086254 -0.003138 0.157647 
0.127010 -0.212786 0.976223 
0.448331 0.105903 1.109824 
0.379114 0.140924 1.043640 
0.876477 0.227824 1.351329 
0.219564 -0.104633 0.921997 
0.372792 -0.020390 0.940355 
-0.075857 -0.001304 0.152438 
0.002046 0.045660 0.039839 
0.042050 0.001540 0.154571 
-0.096381 -0.008402 0.167002 
-0.056985 0.033075 0.089281 
0.073250 0.031655 0.081551 
-0.047281 0.011831 0.196637 
-0.035454 0.032155 0.107637 
0.103875 0.027383 0.096012 
-0.310318 -0.361863 1.011267 
0.036503 0.030491 0.080662 
-0.271832 -0.374374 1.052494 
0.001479 0.039178 0.055958 
-0.033480 0.020198 0.110445 
-0.008306 0.034854 0.067007 
0.023793 0.013841 0.121800 
-0.070460 0.024478 0.085584 
-0.028247 0.041276 0.047698 
0.014417 0.038446 0.058644 
-0.031103 0.044439 0.039405 
0.001931 0.045507 0.040030 
0.124960 0.038969 0.068377 
0.131293 0.025184 0.106164 
-0.050080 0.041182 0.068155 
0.063007 -0.005206 0.225326 
0.008279 0.050658 0.029342 
-0.077745 0.009181 0.100064 
-0.067796 0.040875 0.081029 
-0.051776 0.039509 0.047583 
0.028567 0.055366 0.024011 
2.384904 -0.395281 1.060145 
2.511439 -0.235269 0.929785 
2.059834 -0.275264 1.281348 
1.443916 -0.229458 0.882669 
1.174926 0.391382 0.770744 
1.256567 0.262029 0.859794 
-0.060032 0.019940 0.150583 
2.424410 -0.044432 1.101840 
-0.033477 -0.013030 0.508121 
-0.067284 0.030760 0.081084 
-0.042824 0.024382 0.108247 
-0.339311 -0.093303 0.754389 
0.035241 0.021664 0.102829 
0.000642 0.023185 0.096622 
0.270451 -0.008541 0.245862 
1.092333 -0.884605 2.120772 
0.346222 -0.508443 2.490887 
1.976964 0.150264 1.866731 
0.968382 0.163661 1.536604 
1.402481 -0.285583 1.007461 
0.295921 -0.215804 0.894876 
1.577403 0.264293 1.419564 
0.566494 -0.627715 1.594084 
0.000316 0.023303 0.094714 
0.003575 0.038073 0.058775 
0.120675 0.019218 0.118487 
-0.031346 0.044647 0.039847 
-0.019902 0.046153 0.035623 
-0.057911 0.041054 0.087249 
0.095013 0.026791 0.101043 
0.068950 0.031918 0.080223 
0.018589 0.038165 0.059928 
-0.027241 0.013022 0.188152 
0.044815 0.045422 0.046461 
-0.043890 0.035749 0.067897 
0.120996 0.019588 0.118073 
-0.075109 0.019469 0.094919 
-0.074027 0.012948 0.108212 
0.014875 0.017329 0.110509 
0.046221 -0.002635 0.164485 
0.079542 0.054572 0.025792 
0.059509 0.059306 0.020841 
0.080102 0.054876 0.026322 
-0.032228 -0.076014 0.634088 
0.089555 0.047575 0.043607 
-0.052888 0.032814 0.087777 
0.018987 0.037741 0.061374 
0.144326 0.095073 0.103828 
0.257109 -0.025546 0.337369 
0.114007 0.045269 0.048504 
0.129774 0.034861 0.074349 
-0.091493 0.032147 0.086238 
-0.061838 0.045262 0.033386 
0.033871 0.038740 0.068993 
0.069372 0.031793 0.079908 
-0.014042 0.027828 0.081110 
0.021054 0.033183 0.073390 
0.048415 0.028317 0.092834 
-0.031750 0.028427 0.139675 
0.080744 0.014859 0.119980 
0.134051 0.026302 0.110119 
0.675151 0.288766 1.250493 
1.360406 -0.384149 0.888316 
-0.000133 0.044594 0.043397 
-0.051850 0.018845 0.106927 
-0.012947 0.044929 0.036847 
0.513820 -0.360561 1.305167 
0.164319 -0.143205 0.855814 
2.532053 -0.335785 2.763410 
0.458300 -0.351681 1.458416 
-0.078512 0.019745 0.095196 
0.066011 0.048744 0.041952 
0.040097 0.053254 0.036938 
-0.041596 0.020183 0.109832 
-0.040305 0.031583 0.104503 
-0.068033 0.010561 0.110959 
0.076134 0.039675 0.065240 
-0.033632 0.037976 0.053511 
0.055535 -0.002959 0.184387 
-0.083384 0.067077 0.079529 
-0.051519 0.038126 0.082277 
-0.066167 0.047592 0.078592 
-0.033670 0.038045 0.054058 
0.016677 -0.073888 0.649512 
0.005361 0.031271 0.162913 
-0.076860 0.043238 0.073017 
-0.113846 0.004896 0.131232 
0.013789 0.043949 0.053247 
0.004669 0.008506 0.340541 
-0.007645 0.035067 0.065286 
0.008218 0.036181 0.063117 
0.007119 0.043290 0.046435 
-0.708042 -0.131966 0.783520 
0.044762 0.040906 0.056743 
0.100395 -0.008491 0.245438 
-0.062613 0.042209 0.082150 
-0.048884 0.041502 0.044949 
0.279724 -0.020327 0.573630 
0.092004 0.011583 0.144090 
0.115180 0.037224 0.071255 
0.095856 0.044195 0.050189 
0.080386 0.039154 0.063802 
0.117648 0.033028 0.081422 
0.093179 0.010873 0.135573 
0.046833 0.021662 0.101739 
0.060858 0.047760 0.049843 
0.033646 0.038324 0.068257 
-0.004597 0.043546 0.044301 
0.047874 0.049887 0.046356 
-0.076065 0.008237 0.111300 
0.055399 0.048755 0.039331 
-0.059027 0.043020 0.086282 
-0.024088 0.023095 0.071079 
0.071478 0.019317 0.123778 
0.011392 0.048729 0.035689 
-0.004116 0.048874 0.033335 
-0.015418 0.044899 0.040015 
0.011309 0.034331 0.068616 
0.129408 0.041857 0.059707 
0.821364 -0.745881 1.938020 
0.650879 -0.275563 2.416042 
0.754101 -0.317939 2.587844 
0.040202 0.052234 0.036334 
0.065259 0.048007 0.041227 
-0.066912 0.039974 0.079127 
-0.050995 0.039136 0.052621 
-0.003271 0.042397 0.051115 
0.003639 0.038094 0.058554 
1.851029 0.187911 1.459291 
2.099887 0.568012 -0.077825 
-0.032411 0.020467 0.109336 
-0.047277 0.025291 0.101531 
0.005699 -0.078952 0.674197 
0.060744 0.047767 0.050181 
-0.144176 -0.043377 0.594591 
0.060975 0.049347 0.050914 
-0.005416 0.034499 0.067683 
0.260260 0.007911 0.284704 
-0.058236 0.014163 0.202331 
-0.100385 -0.011761 0.151571 
0.170303 -0.000123 0.258265 
-0.042737 0.022150 0.108254 
0.073635 0.032734 0.082745 
0.019231 0.046303 0.055191 
0.001231 0.039234 0.055682 
-0.047056 0.027173 0.101542 
-0.045812 0.027087 0.100296 
0.039946 -0.073963 0.600736 
-0.112752 0.010007 0.118255 
-0.058049 0.000105 0.490898 
1.845632 0.198022 1.480044 
-0.006325 0.023891 0.093318 
-0.077064 0.006543 0.111485 
-0.031542 -0.147830 0.600248 
0.000563 0.035112 0.075543 
-0.051756 0.002434 0.120734 
0.034346 0.029577 0.081716 
0.090709 0.048720 0.044773 
0.147451 0.025269 0.107901 
-0.378646 -0.443762 0.813260 
0.475497 -1.106454 2.018401 
-0.083622 0.004874 0.117061 
0.144815 0.034319 0.078789 
0.092582 0.039614 0.063088 
0.019483 0.045921 0.050885 
-0.016093 0.026596 0.084661 
0.175910 -0.152419 0.882608 
0.221771 -0.167063 0.931646 
0.212884 -0.355003 0.889503 
0.008233 0.037888 0.059749 
0.029546 0.037327 0.072949 
0.052108 0.044524 0.048089 
-0.052392 0.029665 0.092494 
0.172079 -0.173569 0.875798 
-0.004381 0.037821 0.069734 
-0.010323 0.051420 0.025324 
0.344923 -0.081402 0.533405 
-0.032974 0.028936 0.312041 
0.815642 -0.704857 1.597649 
0.613836 -0.897399 2.162857 
0.321843 -0.336837 1.272343 
0.237732 -0.527755 1.499821 
-0.013365 0.029641 0.078595 
-0.036540 0.020791 0.126938 
-0.062907 -0.112334 0.550157 
0.002699 -0.098463 0.715663 
0.118261 -0.141241 0.759430 
0.132641 -0.159688 0.853807 
0.019731 0.029974 0.079965 
0.947802 -0.076146 1.467145 
1.058873 0.032097 1.870972 
0.099510 -0.007598 0.248630 
0.073172 0.012698 0.127132 
-0.035003 0.031549 0.105369 
-0.028797 0.031989 0.101842 
-0.074800 0.019554 0.094996 
-0.087540 0.029642 0.084176 
0.019357 0.029963 0.080298 
-0.015773 0.041828 0.030186 
-0.042458 0.035112 0.061883 
-0.032691 0.043251 0.113259 
-0.007532 0.008261 0.271536 
-0.049139 0.015115 0.099473 
0.049703 0.013581 0.133244 
-0.050035 0.040065 0.087157 
-0.079706 0.027611 0.083130 
0.057223 -0.027239 0.214648 
-0.048974 0.031834 0.095325 
0.018208 0.017632 0.111386 
0.188605 -0.012068 0.361430 
0.080152 0.048393 0.065598 
-0.006340 0.025895 0.086722 
-0.077424 0.008850 0.110455 
-0.023638 0.034608 0.064290 
1.584082 0.239493 1.604864 
-0.088844 -0.552256 1.149777 
-0.000544 0.039470 0.065404 
-0.057573 0.011255 0.113369 
0.561632 -0.591150 1.604381 
0.085437 0.008091 0.140916 
-0.077032 -0.037039 0.553094 
-0.072947 0.019568 0.100603 
-0.095274 0.031471 0.078063 
0.045472 0.003760 0.149551 
-0.012545 0.038228 0.060954 
0.052599 0.029771 0.083914 
0.078318 0.028844 0.088292 
-0.049645 0.032739 0.099249 
-0.077866 0.008939 0.111249 
-0.073903 0.043703 0.072447 
-0.075650 0.008313 0.110643 
0.708433 -0.663697 1.798347 
0.292352 0.026825 0.270725 
0.151645 -0.041163 0.356864 
-0.019349 0.045861 0.036034 
-0.020597 0.047391 0.037940 
-0.062121 0.045582 0.033808 
-0.075248 0.043401 0.072317 
0.443114 -0.220746 1.051552 
0.992301 -0.133608 2.269441 
-0.076279 0.008050 0.111508 
-0.569435 0.020800 0.744676 
-0.094009 0.029891 0.078260 
-0.103366 0.027435 0.083574 
0.074962 0.052437 0.039493 
-0.010260 0.022186 0.170003 
0.057891 0.036668 0.068778 
0.218973 -0.104125 0.923918 
0.074203 -0.263263 0.793229 
-0.060043 -0.036641 0.607169 
0.037042 0.000297 0.239549 
0.039292 0.036533 0.065018 
-0.057345 0.033063 0.089312 
0.037121 0.038419 0.062254 
-0.033915 0.038338 0.054999 
-0.070983 0.018705 0.093586 
0.050400 0.013133 0.135184 
-0.582860 0.022147 0.768863 
-0.051604 0.038616 0.084596 
-0.098518 0.022132 0.108218 
0.045132 -0.001052 0.233804 
0.065827 -0.046497 0.698337 
1.207355 -0.149001 0.757755 
0.772520 -0.162915 1.474627 
0.750426 -0.167248 1.439793 
-0.023107 0.041448 0.050956 
-0.001718 0.047549 0.034806 
-0.081444 0.037177 0.072864 
-0.053400 0.024669 0.097307 
0.140569 0.100797 1.181845 
0.542105 0.060709 1.131261 
0.504108 0.203818 1.190128 
0.829076 0.219467 1.297979 
-0.113426 -0.000282 0.158901 
-0.070480 0.048901 0.075757 
3.634767 0.530151 0.337361 
1.941791 -0.620692 1.440402 
0.027935 0.042835 0.049369 
0.075098 0.025636 0.097261 
0.127137 0.034571 0.091449 
-0.070230 0.027441 0.081159 
-0.095468 0.034782 0.068930 
0.007198 0.032382 0.168713 
-0.078733 0.008380 0.112360 
0.102932 0.028811 0.100110 
-0.064971 0.046753 0.076998 
-0.075430 0.041345 0.078896 
0.014938 0.038423 0.058513 
0.063084 -0.088903 0.732646 
-0.732572 -0.126578 0.666304 
0.045777 0.054247 0.031444 
-0.033845 0.013886 0.155140 
-0.018278 0.046971 0.030763 
0.144010 0.096131 1.149742 
0.887346 -1.021843 2.393866 
1.920917 -0.717126 2.387952 
0.219140 -0.179276 0.907952 
0.038111 -0.192451 1.004715 
0.123318 -0.668205 1.485763 
0.041305 -0.371431 0.826764 
-0.053934 0.011118 0.232378 
1.858312 0.132025 1.500683 
1.235279 -0.158407 0.741820 
1.627936 -0.308369 1.090216 
1.312419 -0.151502 0.925481 
-0.688268 -0.190084 0.964979 
-0.252864 -0.117047 0.713601 
1.094959 -0.146953 1.887748 
1.056309 0.032773 1.873919 
1.056386 0.034795 1.879610 
1.018052 -0.247431 1.761610 
1.282209 0.070315 0.960887 
1.205974 0.537089 0.833600 
1.263198 0.266097 0.858407 
1.875913 -1.048442 2.486200 
1.682671 -0.934941 2.463341 
0.131601 0.035442 0.076313 
0.011035 0.035292 0.069253 
0.045697 0.004078 0.148845 
-0.049282 0.039170 0.084510 
-0.070681 0.027789 0.080547 
2.355614 0.062373 1.211178 
1.868381 -0.521989 1.459903 
-0.070948 0.044521 0.073565 
0.128221 0.059259 0.164306 
0.065499 0.048212 0.041278 
-0.054373 0.029716 0.095094 
0.510201 -0.424162 2.345008 
1.142688 -0.547875 2.559030 
0.019401 0.048792 0.035744 
-0.096898 -0.011555 0.144545 
-0.003985 0.034685 0.068030 
0.220715 -0.202874 0.915287 
-0.566315 -0.311972 0.694281 
-0.104634 -0.053658 0.627700 
0.130651 0.035447 0.075484 
-0.013307 0.044992 0.039160 
-0.023492 0.048384 0.031664 
-0.350091 -0.097788 0.782307 
-0.347822 -0.369545 0.884794 
-0.454082 -0.380516 0.802376 
-0.004882 0.043593 0.044177 
-0.030139 0.044377 0.039608 
0.049554 0.033532 0.073750 
0.044245 0.045730 0.046602 
0.112634 0.036201 0.069598 
-0.048526 0.038694 0.081932 
-0.091094 0.039388 0.077560 
1.041793 0.233429 1.237234 
0.572142 -0.117885 1.178562 
0.035791 0.024407 0.092466 
0.680295 -0.130893 1.392369 
-0.099992 -0.012292 0.151444 
-0.077435 0.019928 0.093616 
0.000210 0.023160 0.095355 
-0.009234 0.042053 0.049969 
0.023958 0.041721 0.051947 
-0.022361 0.040922 0.048293 
0.117586 0.031394 0.085425 
0.038805 0.056625 0.017592 
1.108916 0.045759 1.886108 
0.185382 -0.298535 0.844365 
-0.055774 0.040988 0.081743 
-0.010160 0.022057 0.153739 
0.080633 0.044756 0.051670 
-0.000001 0.023433 0.094034 
-0.190449 -0.141276 0.754833 
-0.539686 -0.335277 0.758720 
-0.403511 0.051699 0.697208 
-0.024781 0.035886 0.064454 
0.073208 0.041206 0.058372 
0.003695 0.044865 0.041694 
-0.041589 0.029736 0.100157 
0.004235 -0.001094 0.257374 
0.019354 0.045030 0.050667 
0.137799 0.027846 0.094382 
0.072276 0.020307 0.118039 
1.415951 -0.556286 2.754520 
0.061623 -0.481197 2.027516 
0.012581 0.032107 0.084722 
0.012271 0.030720 0.076471 
-0.080218 0.041233 0.073877 
-0.045112 0.011436 0.166264 
-0.034820 0.019503 0.134858 
0.020434 0.030056 0.084018 
0.264569 0.023147 0.239920 
0.079357 0.060828 0.013376 
-0.014969 0.031850 0.073488 
0.081224 0.055195 0.027018 
0.393236 -0.073296 0.757558 
0.079940 0.054795 0.025943 
0.055679 0.049693 0.036887 
0.116408 0.033605 0.087760 
0.119040 0.016384 0.135147 
0.019448 0.026472 0.106884 
0.001646 -0.323444 0.768766 
0.015021 0.038829 0.059571 
2.049963 -0.828858 2.063628 
0.217493 0.359717 1.223994 
0.559380 0.153726 1.293461 
1.225571 0.417153 1.177182 
0.903816 -0.189345 1.644253 
0.311426 0.035657 0.955354 
0.223527 -0.319844 0.890739 
-0.117200 -0.509292 1.152839 
-0.004442 0.037632 0.069695 
1.992798 -0.217330 1.681177 
2.438653 0.284522 1.163264 
-0.043477 0.024707 0.109917 
-0.046555 0.048140 0.032955 
-0.073241 0.026846 0.082474 
2.158780 -0.659202 1.214172 
2.129468 0.034360 1.304022 
2.173613 0.194736 1.266293 
2.813380 -0.147057 0.703336 
-0.016217 0.032695 0.071133 
-0.048596 0.035907 0.092067 
-0.060784 0.022789 0.101858 
-0.065993 0.011028 0.105501 
-0.058889 0.020822 0.107819 
-0.101373 0.027430 0.105546 
-0.072561 0.044437 0.075888 
-0.096129 0.035106 0.069701 
-0.096351 0.034887 0.070923 
-0.096595 0.034869 0.071011 
-0.103226 0.026794 0.084123 
-0.023313 0.034525 0.063986 
0.819925 -1.173826 2.315464 
0.835772 -1.174004 2.332479 
0.015272 0.036542 0.064223 
0.019337 0.029989 0.080075 
-0.058909 -0.049315 0.587465 
0.011566 0.047813 0.036560 
-0.033418 0.037867 0.053776 
-0.083471 0.066937 0.079700 
-0.096374 0.035009 0.070395 
-0.067009 0.045724 0.072692 
-0.005547 0.038217 0.069157 
0.018975 0.044189 0.046821 
0.018336 0.044581 0.048557 
-0.030561 0.033039 0.108596 
-0.038338 0.033812 0.103009 
-0.080117 0.046997 0.080101 
-0.023050 0.034587 0.064184 
0.112613 0.016387 0.123562 
-0.015965 0.032297 0.071166 
0.088615 0.035272 0.092528 
0.065966 0.048626 0.041922 
0.055003 0.013729 0.135878 
-0.028444 0.028606 0.086846 
0.670480 0.269152 1.218083 
1.039822 -1.330535 2.389710 
0.164414 -0.174111 0.874248 
0.581617 -0.007185 1.247486 
0.111325 0.035534 0.068046 
0.104537 0.029352 0.102702 
0.152290 0.026655 0.113493 
0.143585 0.024552 0.096383 
0.155129 0.030205 0.087690 
0.041761 0.043139 0.051511 
-0.019838 0.045902 0.035460 
0.032384 0.048915 0.032622 
-0.224334 -0.120047 0.713304 
-0.263429 -0.125856 0.753374 
0.166485 0.030606 0.119470 
-0.024758 0.040175 0.050474 
-0.094626 0.040441 0.081623 
0.089408 0.012169 0.130451 
0.238735 -0.023968 0.316821 
0.056547 -0.093005 0.728253 
0.013436 0.031447 0.079651 
0.000819 0.023268 0.097109 
0.217738 -0.106082 0.920126 
0.136468 -0.191719 0.963984 
0.080447 -0.075821 0.750569 
0.325577 -0.046283 0.914494 
-0.078787 0.008973 0.112883 
-0.061638 0.024322 0.088746 
-0.094347 0.029499 0.079391 
0.542191 -0.326301 1.289538 
1.414903 -1.399612 2.489383 
1.824650 -1.050643 2.510653 
1.922239 -0.673407 2.398749 
